# .PCD v0.7 - Point Cloud Data file format
VERSION 0.7
FIELDS x y z
SIZE 4 4 4
TYPE F F F
COUNT 1 1 1
WIDTH 1407
HEIGHT 1
VIEWPOINT 0 0 0 1 0 0 0
POINTS 1407
DATA ascii
0.48748913 -0.015552172 0.51179731
0.48842886 -0.016095841 0.51200855
0.48936474 -0.016559517 0.51218867
0.49029779 -0.016968885 0.5123477
0.49122816 -0.017318778 0.5124836
0.49215648 -0.017623527 0.51260203
0.49308288 -0.0178774 0.51270062
0.49400735 -0.018051729 0.51276839
0.49493065 -0.018181249 0.51281869
0.49585286 -0.018239042 0.51284117
0.49677435 -0.018226 0.51283604
0.49769562 -0.018155389 0.51280862
0.49861705 -0.018039979 0.5127638
0.4995389 -0.017913716 0.51271474
0.50046128 -0.017730055 0.5126434
0.5013845 -0.017505812 0.51255625
0.50230891 -0.017209493 0.51244116
0.50323504 -0.016824409 0.51229155
0.50416344 -0.016347243 0.51210618
0.50509375 -0.015862491 0.51191789
0.5060268 -0.015307296 0.51170218
0.50696295 -0.014682449 0.51145947
0.50790429 -0.013889235 0.51115131
0.50885266 -0.012872447 0.51075625
0.5098058 -0.011814452 0.51034528
0.51076478 -0.010671291 0.50990117
0.51173782 -0.0091251694 0.50930047
0.51273888 -0.0067248936 0.50836802
0.48064741 -0.0069821593 0.50746703
0.4816812 -0.0093857562 0.50840569
0.48267591 -0.010946462 0.5090152
0.48365474 -0.012211528 0.50950921
0.48461971 -0.013191228 0.50989181
0.48557851 -0.014089438 0.51024258
0.4865306 -0.014870664 0.51054764
0.48747709 -0.015549669 0.51081282
0.48841783 -0.016097762 0.51102686
0.48935467 -0.016564308 0.51120907
0.49028862 -0.016974574 0.51136929
0.49121982 -0.017322278 0.51150507
0.49214908 -0.017630385 0.51162535
0.49307635 -0.017884411 0.51172459
0.49400172 -0.018062111 0.51179397
0.49492592 -0.018193247 0.51184517
0.49584901 -0.01825306 0.51186854
0.49677134 -0.018238572 0.51186287
0.49769348 -0.018168483 0.51183552
0.49861577 -0.01805301 0.51179039
0.49953848 -0.017927542 0.5117414
0.5004617 -0.017743666 0.51166964
0.50138581 -0.017517276 0.51158118
0.50231105 -0.017221972 0.51146591
0.50323808 -0.016837312 0.51131564
0.50416732 -0.016360603 0.5111295
0.50509852 -0.015876593 0.51094049
0.50603241 -0.01532019 0.51072317
0.50696945 -0.01469622 0.51047951
0.50791156 -0.013906854 0.51017129
0.50886095 -0.01288329 0.50977153
0.50981528 -0.011808783 0.50935191
0.51077509 -0.010672052 0.50890803
0.51174927 -0.0091174105 0.5083009
0.51275206 -0.0066851741 0.50735104
0.48062557 -0.0068979659 0.50643116
0.4816623 -0.0093499254 0.50739366
0.48265833 -0.01091879 0.50800955
0.48363855 -0.012196333 0.50851107
0.48460451 -0.01317712 0.50889605
0.4855645 -0.014082773 0.50925159
0.48651752 -0.014864426 0.50955838
0.48746502 -0.015547104 0.50982642
0.48840678 -0.016099719 0.51004332
0.4893446 -0.016569128 0.51022762
0.49027938 -0.016977714 0.51038796
0.49121147 -0.017325815 0.51052463
0.49214166 -0.017637219 0.51064688
0.49306983 -0.01789156 0.51074672
0.49399611 -0.018072512 0.51081777
0.49492118 -0.018205209 0.51086986
0.49584514 -0.018267099 0.51089412
0.49676836 -0.01825122 0.51088792
0.49769133 -0.018181589 0.51086056
0.49861449 -0.018066002 0.5108152
0.49953803 -0.017941384 0.51076627
0.50046217 -0.017757347 0.51069403
0.50138712 -0.017528703 0.51060426
0.5023132 -0.017234471 0.51048875
0.50324106 -0.016850293 0.51033795
0.50417119 -0.016373981 0.51015097
0.50510323 -0.015890662 0.50996125
0.50603807 -0.015333104 0.50974238
0.50697601 -0.014703508 0.50949526
0.50791913 -0.01390878 0.50918329
0.50886935 -0.012887764 0.50878245
0.50982469 -0.011809072 0.50835901
0.51078546 -0.010671292 0.5079124
0.51176077 -0.0091082687 0.50729883
0.51276535 -0.0066452534 0.50633192
0.48060367 -0.0068136603 0.50539297
0.4816432 -0.0093095768 0.50637782
0.48264071 -0.010891113 0.50700188
0.48362216 -0.012175452 0.50750864
0.48458931 -0.01316292 0.50789827
0.48555043 -0.014076115 0.50825864
0.48650444 -0.014858252 0.50856727
0.48745292 -0.015544537 0.50883806
0.48839572 -0.016101724 0.50905794
0.48933446 -0.016573932 0.50924426
0.49027011 -0.016980892 0.50940484
0.49120313 -0.017329331 0.50954235
0.49213424 -0.017643748 0.50966638
0.49306327 -0.017898628 0.509767
0.49399048 -0.018082937 0.50983971
0.49491644 -0.018217249 0.5098927
0.49584126 -0.018281149 0.50991791
0.49676532 -0.018263884 0.50991112
0.49768919 -0.018194769 0.50988382
0.49861318 -0.01807907 0.50983816
0.49953762 -0.017955245 0.50978929
0.50046259 -0.017771048 0.50971663
0.50138837 -0.017540211 0.50962555
0.5023154 -0.017246988 0.50950986
0.5032441 -0.016863234 0.50935841
0.50417507 -0.016387381 0.50917065
0.505108 -0.015904747 0.50898021
0.50604367 -0.015346044 0.50875974
0.50698262 -0.014709484 0.50850856
0.50792664 -0.013910752 0.50819337
0.50887775 -0.012892229 0.50779152
0.50983393 -0.011816475 0.50736701
0.51079589 -0.010666167 0.50691313
0.51177222 -0.0091010509 0.5062955
0.51277864 -0.0066053048 0.50531071
0.48058173 -0.0067291362 0.50435239
0.48162392 -0.0092654983 0.5053584
0.48262307 -0.010863387 0.50599217
0.48360565 -0.012151529 0.50650305
0.48457405 -0.01314869 0.50689858
0.48553637 -0.014069466 0.50726378
0.48649129 -0.014852028 0.5075742
0.48744082 -0.015542022 0.50784785
0.4883846 -0.016103661 0.50807065
0.4893243 -0.016577097 0.5082584
0.49026084 -0.016984057 0.50841981
0.49119473 -0.017332893 0.50855815
0.49212676 -0.017649749 0.50868386
0.49305671 -0.017905731 0.50878537
0.49398485 -0.018093392 0.50885981
0.4949117 -0.018229308 0.5089137
0.49583739 -0.018294716 0.50893968
0.49676231 -0.018276572 0.50893247
0.49768704 -0.018207911 0.50890523
0.4986119 -0.018092159 0.50885934
0.4995372 -0.017967219 0.50880975
0.50046301 -0.017784713 0.50873739
0.50138968 -0.017551744 0.508645
0.50231755 -0.017259531 0.50852907
0.50324714 -0.016876256 0.50837708
0.504179 -0.016400807 0.50818849
0.50511277 -0.015918465 0.50799716
0.50604934 -0.015359011 0.50777525
0.50698924 -0.014715442 0.50752002
0.50793427 -0.013912717 0.50720161
0.50888622 -0.012896686 0.50679862
0.50984323 -0.011823865 0.50637311
0.51080644 -0.010658084 0.50591069
0.51178366 -0.0090938536 0.50529027
0.51279199 -0.0065620299 0.50428611
0.48055971 -0.0066444525 0.50330949
0.48160461 -0.0092212893 0.50433677
0.48260537 -0.010835547 0.50498039
0.48358908 -0.012127545 0.50549543
0.48455879 -0.013134434 0.50589687
0.48552227 -0.014062774 0.50626701
0.48647815 -0.014845816 0.50657916
0.48742875 -0.015542534 0.50685692
0.48837343 -0.016103407 0.50708055
0.48931411 -0.016579859 0.50727051
0.49025154 -0.01698727 0.50743294
0.49118632 -0.017336436 0.50757211
0.49211931 -0.017655844 0.50769949
0.49305016 -0.017912867 0.50780195
0.49397919 -0.01810387 0.50787807
0.49490693 -0.018241333 0.5079329
0.49583352 -0.018307297 0.50795919
0.49675927 -0.018289337 0.50795203
0.49768487 -0.018221138 0.50792485
0.49861059 -0.018105213 0.5078786
0.49953675 -0.017979166 0.50782835
0.50046343 -0.017798455 0.50775635
0.50139099 -0.017563306 0.50766259
0.50231969 -0.017272098 0.50754648
0.50325018 -0.016889304 0.5073939
0.50418288 -0.016414251 0.50720447
0.50511754 -0.01593204 0.50701225
0.50605494 -0.015372004 0.50678897
0.50699586 -0.014721445 0.50652957
0.50794184 -0.01391468 0.50620794
0.50889468 -0.012901189 0.50580388
0.50985259 -0.011828898 0.5053764
0.51081699 -0.010649915 0.50490636
0.51179516 -0.0090865679 0.50428307
0.5128051 -0.0065315501 0.50326443
0.48053765 -0.0065595023 0.50226414
0.48158526 -0.0091770645 0.50331306
0.48258764 -0.010807658 0.50396651
0.48357248 -0.012103444 0.50448579
0.48454347 -0.013120154 0.50489318
0.48550814 -0.014056043 0.50526822
0.48646495 -0.014839617 0.50558221
0.48741674 -0.015545556 0.5058651
0.48836225 -0.016102817 0.50608844
0.48930389 -0.016583281 0.50628096
0.49024221 -0.01699047 0.50644416
0.49117792 -0.017339973 0.50658423
0.49211183 -0.01766192 0.50671321
0.49304357 -0.017920041 0.50681663
0.49397352 -0.018114382 0.50689453
0.49490216 -0.018253446 0.50695026
0.49582961 -0.018319851 0.50697684
0.49675626 -0.018301906 0.50696969
0.49768272 -0.018234387 0.50694263
0.4986093 -0.018118352 0.50689614
0.49953631 -0.017991193 0.50684518
0.5004639 -0.01781222 0.50677341
0.5013923 -0.017574897 0.50667834
0.5023219 -0.017284695 0.50656205
0.50325322 -0.016902324 0.50640881
0.50418681 -0.016427675 0.50621861
0.5051223 -0.015945703 0.50602549
0.5060606 -0.015385029 0.50580078
0.50700253 -0.014727438 0.50553727
0.50794941 -0.013918374 0.50521308
0.50890315 -0.01290569 0.50480723
0.50986201 -0.011832918 0.50437737
0.5108276 -0.010641764 0.50390005
0.51180679 -0.0090762917 0.50327271
0.51281786 -0.0065150093 0.50224632
0.48051438 -0.0064442973 0.50120437
0.48156586 -0.0091326637 0.50228721
0.48256987 -0.010779721 0.50295061
0.48355585 -0.0120794 0.50347406
0.48452812 -0.013105462 0.50388736
0.48549393 -0.014047371 0.50426674
0.48645175 -0.014833378 0.50458336
0.4874047 -0.015548522 0.50487137
0.48835102 -0.01610229 0.50509441
0.48929366 -0.016586978 0.50528967
0.49023288 -0.016993664 0.50545347
0.49116948 -0.017343501 0.50559437
0.49210432 -0.017667986 0.50572509
0.49303699 -0.017927198 0.50582945
0.49396786 -0.018124873 0.50590909
0.49489737 -0.018265532 0.50596577
0.49582571 -0.018332487 0.50599271
0.49675322 -0.018314335 0.50598544
0.49768054 -0.018247161 0.50595838
0.49860799 -0.018131519 0.50591177
0.49953589 -0.018003251 0.50586009
0.50046432 -0.017826017 0.50578874
0.50139362 -0.017586462 0.50569224
0.50232404 -0.017297212 0.50557572
0.50325626 -0.016915431 0.50542194
0.50419068 -0.016441181 0.50523096
0.50512707 -0.01595984 0.50503707
0.50606632 -0.015398091 0.50481081
0.50700915 -0.014733424 0.50454307
0.50795698 -0.013922346 0.50421637
0.50891167 -0.012910132 0.50380868
0.50987142 -0.011836942 0.50337642
0.51083815 -0.01063504 0.50289232
0.51181817 -0.0090752598 0.50226408
0.51283062 -0.0064984076 0.50122613
0.48049009 -0.0063050711 0.50013244
0.4815464 -0.0090882508 0.50125915
0.48255208 -0.010751743 0.50193262
0.48353919 -0.012055247 0.5024603
0.48451275 -0.013090694 0.5028795
0.48547953 -0.014033484 0.50326121
0.48643851 -0.014827099 0.50358248
0.48739263 -0.015551542 0.50387579
0.48833978 -0.016101709 0.50409847
0.48928344 -0.016590672 0.50429642
0.49022353 -0.016996853 0.50446087
0.49116105 -0.017347081 0.50460267
0.49209681 -0.0176741 0.50473505
0.49303037 -0.017934341 0.50484043
0.49396217 -0.018135397 0.50492179
0.49489257 -0.018277485 0.50497931
0.4958218 -0.018345099 0.50500673
0.49675015 -0.018326744 0.50499928
0.49767837 -0.018259913 0.50497222
0.49860668 -0.018144714 0.50492561
0.49953544 -0.018015346 0.50487322
0.50046474 -0.01783984 0.50480217
0.50139493 -0.017598063 0.5047043
0.50232625 -0.017308589 0.50458711
0.5032593 -0.016928516 0.50443321
0.50419462 -0.016454721 0.50424141
0.50513184 -0.015974067 0.5040468
0.50607198 -0.015411127 0.50381893
0.50701582 -0.01473946 0.50354701
0.50796461 -0.013926208 0.50321776
0.50892013 -0.012915136 0.50280845
0.50988078 -0.01184365 0.50237465
0.51084828 -0.010650434 0.50189161
0.51182926 -0.0090887537 0.50125939
0.51284337 -0.0064824163 0.50020421
0.48046574 -0.0061655235 0.4990578
0.48152694 -0.0090436628 0.50022894
0.48253423 -0.010723666 0.50091255
0.48352247 -0.01203104 0.50144452
0.48449731 -0.013075858 0.50186962
0.48546511 -0.014019632 0.50225365
0.48642525 -0.01482101 0.50257975
0.48738056 -0.015554564 0.50287825
0.48832852 -0.016101131 0.50310063
0.48927316 -0.016593419 0.50330096
0.49021417 -0.017000044 0.50346643
0.49115258 -0.017350599 0.50360906
0.4920893 -0.017680146 0.50374311
0.49302375 -0.017941533 0.50384951
0.49395648 -0.01814596 0.50393265
0.49488777 -0.018287964 0.50399047
0.49581787 -0.018357744 0.50401884
0.49674711 -0.018339129 0.50401127
0.49767619 -0.01827264 0.50398421
0.4986054 -0.018157886 0.50393754
0.49953502 -0.018027415 0.50388443
0.50046515 -0.0178537 0.50381374
0.50139624 -0.017609645 0.50371444
0.50232846 -0.017319949 0.50359654
0.50326234 -0.01694208 0.50344282
0.50419855 -0.016468465 0.50325012
0.50513667 -0.015988274 0.50305474
0.50607771 -0.015424261 0.5028252
0.5070225 -0.01474594 0.50254923
0.5079723 -0.013927341 0.5022161
0.5089286 -0.012925101 0.50180829
0.50989008 -0.011856875 0.50137365
0.51085842 -0.010665872 0.500889
0.51184034 -0.0091022952 0.50025278
0.51285613 -0.0064703263 0.49918184
0.48044246 -0.0060538347 0.49799207
0.48150742 -0.008999018 0.49919656
0.48251638 -0.010695606 0.49989039
0.48350576 -0.012006843 0.50042665
0.48448187 -0.013060953 0.50085777
0.48545066 -0.014005711 0.50124413
0.48641208 -0.014818509 0.50157654
0.48736846 -0.015557532 0.50187874
0.48831725 -0.016101293 0.50210112
0.48926285 -0.01659533 0.50230318
0.49020478 -0.01700329 0.50247002
0.49114412 -0.017354788 0.50261378
0.49208176 -0.017686302 0.50274938
0.49301711 -0.017948771 0.50285667
0.49395075 -0.018154837 0.50294095
0.49488294 -0.01829849 0.50299972
0.49581394 -0.018370427 0.50302917
0.49674407 -0.018351605 0.50302148
0.49767402 -0.018285461 0.50299442
0.49860409 -0.018171094 0.50294763
0.49953458 -0.018039526 0.50289381
0.50046563 -0.017867591 0.50282347
0.50139755 -0.017621323 0.5027228
0.5023306 -0.017331295 0.50260419
0.50326538 -0.016956074 0.5024507
0.50420249 -0.016483529 0.50225747
0.5051415 -0.016002521 0.50206077
0.50608337 -0.01543738 0.50182962
0.50702912 -0.014759435 0.50155234
0.50797999 -0.013928598 0.5012126
0.50893694 -0.012939296 0.500808
0.50989932 -0.011870264 0.5003708
0.51086855 -0.010681298 0.49988455
0.51185155 -0.0091102673 0.49924204
0.51286882 -0.0064582312 0.49815744
0.48042041 -0.0059743761 0.49693713
0.48148784 -0.0089542605 0.49816197
0.48249847 -0.0106674 0.49886611
0.48348898 -0.011982488 0.49940667
0.4844664 -0.013046093 0.49984387
0.48543617 -0.013991828 0.50023258
0.48639888 -0.014816024 0.50057137
0.48735633 -0.015560568 0.50087738
0.48830608 -0.016106246 0.50110167
0.48925251 -0.016597193 0.50130349
0.49019539 -0.017006481 0.5014717
0.49113566 -0.017361205 0.50161755
0.49207419 -0.01769245 0.50175369
0.49301046 -0.017956002 0.50186199
0.493945 -0.018162871 0.50194705
0.49487811 -0.018308999 0.50200713
0.49581 -0.018383089 0.50203758
0.496741 -0.018364068 0.50202972
0.49767181 -0.018298265 0.50200272
0.49860278 -0.018184341 0.50195587
0.49953413 -0.018051622 0.50190133
0.50046605 -0.017881464 0.50183135
0.50139886 -0.017632989 0.50172925
0.50233281 -0.017342737 0.50160992
0.50326848 -0.016970104 0.5014568
0.50420642 -0.016498627 0.50126296
0.50514632 -0.016016746 0.5010649
0.50608909 -0.015451096 0.50083238
0.50703573 -0.014772972 0.50055367
0.50798768 -0.013929752 0.50020707
0.50894529 -0.012953536 0.49980581
0.50990862 -0.011884145 0.49936625
0.51087868 -0.010696827 0.49887821
0.51186281 -0.0091173546 0.498229
0.51288158 -0.0064460742 0.49713099
0.4803983 -0.005894769 0.4958798
0.48146826 -0.0089094536 0.49712521
0.48248053 -0.010639109 0.49783975
0.4834722 -0.011958202 0.49838468
0.48445091 -0.013031173 0.49882793
0.48542166 -0.013977884 0.49921903
0.48638564 -0.014813507 0.49956423
0.48734412 -0.015562107 0.49987349
0.48829487 -0.016111208 0.50010031
0.48924214 -0.01659907 0.50030184
0.49018598 -0.017009741 0.50047153
0.49112722 -0.017367564 0.50061935
0.49206662 -0.017698599 0.50075608
0.49300382 -0.017963175 0.5008654
0.49393925 -0.018170903 0.50095123
0.49487326 -0.018319611 0.50101262
0.49580607 -0.018395796 0.50104409
0.49673793 -0.01837657 0.50103617
0.49766964 -0.01831105 0.50100911
0.49860147 -0.01819763 0.50096226
0.49953368 -0.018063813 0.50090694
0.50046647 -0.017895378 0.50083739
0.50140017 -0.017644696 0.50073385
0.50233501 -0.01735417 0.50061381
0.50327152 -0.01698412 0.50046092
0.50421035 -0.016513767 0.50026661
0.50515115 -0.016031018 0.50006717
0.50609481 -0.015464859 0.49983332
0.50704229 -0.014786502 0.49955308
0.50799537 -0.013930925 0.49919963
0.50895369 -0.01296782 0.49880177
0.50991791 -0.011897963 0.4983598
0.51088887 -0.010712351 0.49787
0.51187414 -0.009124402 0.49721399
0.51289409 -0.0064444244 0.49610686
0.48037615 -0.0058149658 0.49482009
0.48144859 -0.0088645387 0.49608624
0.48246232 -0.010604401 0.49680862
0.48345536 -0.011933822 0.49736059
0.48443535 -0.013016192 0.49780995
0.48540711 -0.013963875 0.49820343
0.48637238 -0.014811014 0.49855515
0.48733181 -0.015559835 0.49886605
0.48828366 -0.016116174 0.49909705
0.48923177 -0.016600899 0.4992983
0.49017653 -0.01701295 0.49946937
0.49111873 -0.017374035 0.49961928
0.49205905 -0.017704695 0.49975657
0.49299714 -0.01797046 0.4998669
0.4939335 -0.018178981 0.49995351
0.4948684 -0.018330157 0.50001627
0.4958021 -0.018408546 0.50004882
0.49673486 -0.018389115 0.50004071
0.49766743 -0.018323941 0.50001365
0.49860013 -0.018210961 0.49996677
0.49953327 -0.018075997 0.49991074
0.50046694 -0.017909335 0.49984154
0.50140148 -0.017656451 0.49973655
0.50233722 -0.017365597 0.49961579
0.50327462 -0.016998291 0.49946329
0.50421429 -0.016528949 0.49926841
0.50515598 -0.016045336 0.49906763
0.50610059 -0.015475669 0.49883112
0.50704896 -0.014800133 0.49855062
0.50800312 -0.013932118 0.49819025
0.50896209 -0.012982103 0.49779582
0.50992727 -0.011911894 0.49735147
0.51089919 -0.010723263 0.49685797
0.51188546 -0.009131521 0.4961971
0.51290619 -0.0064595235 0.49508771
0.48035395 -0.0057350216 0.49375799
0.48142892 -0.0088194115 0.49504504
0.48244405 -0.010569623 0.49577534
0.48343849 -0.011909351 0.49633437
0.48441979 -0.013001208 0.49678996
0.48539254 -0.013949861 0.4971858
0.48635912 -0.014808437 0.49754408
0.48731947 -0.015557587 0.49785668
0.48827243 -0.016120987 0.49809176
0.48922136 -0.016602799 0.4982928
0.49016705 -0.017016171 0.4984653
0.49111024 -0.017380401 0.49861726
0.49205145 -0.017710855 0.49875516
0.49299046 -0.01797769 0.4988665
0.49392772 -0.018187067 0.49895388
0.49486354 -0.018340753 0.49901801
0.49579814 -0.018421344 0.49905163
0.49673176 -0.018401653 0.49904341
0.49766523 -0.018336816 0.49901637
0.49859881 -0.01822428 0.49896941
0.49953282 -0.018088171 0.4989126
0.50046736 -0.017923279 0.49884382
0.5014028 -0.017668147 0.49873734
0.50233942 -0.017377073 0.49861589
0.50327766 -0.017013894 0.49846435
0.50421828 -0.016544119 0.49826834
0.50516081 -0.016059646 0.49806616
0.50610638 -0.015485483 0.49782658
0.50705558 -0.014813706 0.49754629
0.5080108 -0.013933276 0.49717888
0.50897056 -0.012996438 0.496788
0.50993657 -0.011925767 0.49634123
0.5109095 -0.010733354 0.49584365
0.51189685 -0.0091386046 0.49517822
0.51291829 -0.0064746309 0.49406663
0.48033169 -0.0056548845 0.49269351
0.48140916 -0.0087740207 0.49400154
0.48242578 -0.01053478 0.49473992
0.48342159 -0.011884845 0.49530607
0.48440418 -0.012986226 0.49576795
0.48537797 -0.013935789 0.49616614
0.4863458 -0.014805946 0.49653107
0.4873071 -0.015555366 0.49684533
0.48826113 -0.016124258 0.4970839
0.48921096 -0.016604664 0.49728537
0.49015757 -0.01701946 0.49745932
0.49110174 -0.017386829 0.49761337
0.49204385 -0.017717075 0.49775186
0.49298376 -0.017984981 0.49786419
0.49392191 -0.018195149 0.49795234
0.49485868 -0.018351406 0.49801788
0.49579418 -0.018434132 0.49805257
0.49672869 -0.01841424 0.49804422
0.49766302 -0.018349743 0.49801716
0.4985975 -0.018237595 0.49797013
0.49953237 -0.018100398 0.49791262
0.50046784 -0.017937269 0.49784419
0.50140417 -0.017679948 0.49773628
0.50234163 -0.017388545 0.49761409
0.50328076 -0.017029544 0.49746355
0.50422221 -0.016559336 0.49726635
0.50516564 -0.016074002 0.49706283
0.50611216 -0.015495302 0.49682015
0.5070622 -0.014827391 0.49654004
0.50801855 -0.013934458 0.4961656
0.50897896 -0.013010775 0.49577823
0.50994593 -0.011939756 0.49532911
0.51091987 -0.010743457 0.49482742
0.51190817 -0.0091457674 0.49415743
0.51293045 -0.0064898022 0.49304363
0.48030993 -0.0055885091 0.49163246
0.4813894 -0.0087285331 0.4929558
0.48240745 -0.010499876 0.49370235
0.48340464 -0.011859865 0.49427551
0.48438856 -0.012971139 0.49474385
0.48536333 -0.01392177 0.49514449
0.48633248 -0.014803431 0.49551606
0.48729467 -0.01555129 0.49583125
0.48824981 -0.016127605 0.49607411
0.48920053 -0.016606601 0.49627599
0.4901481 -0.017022658 0.49645135
0.49109322 -0.017393267 0.49660754
0.49203622 -0.017723247 0.4967466
0.49297705 -0.017991999 0.49685988
0.49391612 -0.01820335 0.49694893
0.49485379 -0.018362001 0.4970158
0.49579021 -0.018446917 0.4970516
0.49672559 -0.018426822 0.4970431
0.49766082 -0.01836261 0.49701604
0.49859616 -0.018250957 0.49696898
0.49953192 -0.018112622 0.49691069
0.50046825 -0.017951313 0.49684271
0.50140548 -0.017691692 0.49673331
0.50234389 -0.017400075 0.4966104
0.50328386 -0.017045243 0.49646086
0.50422621 -0.016574604 0.49626252
0.50517052 -0.016088413 0.4960576
0.506118 -0.015505182 0.49581179
0.50706887 -0.014841073 0.49553192
0.5080263 -0.013938654 0.49515161
0.50898743 -0.013025167 0.49476662
0.50995535 -0.011953697 0.49431506
0.51093024 -0.010753573 0.49380925
0.51191962 -0.0091528939 0.49313468
0.51294261 -0.0065049897 0.4920187
0.48028851 -0.0055309404 0.49057287
0.48136947 -0.0086799711 0.49190661
0.48238909 -0.010464908 0.49266261
0.48338756 -0.011832813 0.49324197
0.48437288 -0.012956116 0.49371773
0.4853487 -0.013908757 0.49412119
0.48631909 -0.014800895 0.49449906
0.48728222 -0.015547309 0.4948152
0.48823845 -0.016130859 0.49506235
0.48919007 -0.016608452 0.49526462
0.49013859 -0.017026758 0.49544179
0.49108467 -0.017399773 0.49559981
0.49202856 -0.017729431 0.4957394
0.49297032 -0.017998477 0.49585336
0.49391031 -0.018211832 0.49594373
0.49484891 -0.018372655 0.49601185
0.49578622 -0.018459756 0.49604875
0.49672249 -0.018439403 0.49604011
0.49765861 -0.018375585 0.49601308
0.49859485 -0.018264372 0.49596599
0.49953148 -0.018124899 0.49590692
0.50046867 -0.017965352 0.49583933
0.50140679 -0.017703494 0.49572843
0.5023461 -0.01741161 0.49560481
0.5032869 -0.017061323 0.49545646
0.50423014 -0.016589925 0.49525678
0.50517541 -0.016102822 0.49505049
0.50612378 -0.015515015 0.49480152
0.50707555 -0.01485476 0.49452189
0.50803387 -0.013952335 0.49413967
0.50899589 -0.013039568 0.49375308
0.5099647 -0.011967698 0.4932991
0.51094067 -0.010763708 0.49278915
0.511931 -0.0091600521 0.49210995
0.51295477 -0.0065201898 0.49099186
0.48026702 -0.0054733111 0.48951098
0.48134944 -0.0086304918 0.4908548
0.48237067 -0.010429831 0.49162066
0.48337048 -0.011805686 0.49220631
0.48435721 -0.012940992 0.49268952
0.48533419 -0.013900217 0.49309781
0.48630571 -0.01479784 0.49347988
0.48726973 -0.015543255 0.49379715
0.4882271 -0.016134195 0.49404866
0.48917958 -0.016610384 0.49425134
0.49012908 -0.017030936 0.49443036
0.49107611 -0.017406238 0.4945901
0.49202093 -0.017735632 0.49473029
0.49296358 -0.018004913 0.49484491
0.4939045 -0.018220272 0.49493659
0.49484399 -0.018382816 0.49500576
0.49578226 -0.018472595 0.49504396
0.49671939 -0.018452095 0.49503526
0.4976564 -0.01838856 0.4950082
0.49859351 -0.018277785 0.49496105
0.49953103 -0.018137179 0.49490121
0.50046915 -0.017979443 0.49483407
0.50140816 -0.017715355 0.49472168
0.5023483 -0.017424583 0.49459791
0.50329 -0.01707823 0.49445048
0.50423414 -0.016605245 0.49424917
0.5051803 -0.01611729 0.49404147
0.50612962 -0.015524859 0.49378932
0.50708222 -0.014868452 0.49350992
0.5080415 -0.01396602 0.4931258
0.50900441 -0.013053974 0.49273762
0.50997412 -0.011981709 0.49228123
0.5109511 -0.010773866 0.49176711
0.51194233 -0.0091712689 0.49108499
0.51296699 -0.0065354127 0.48996305
0.4802455 -0.0054154596 0.48844677
0.48132938 -0.008580883 0.48980075
0.48235226 -0.010394975 0.49057668
0.48335335 -0.011778543 0.4911685
0.48434147 -0.012925825 0.49165922
0.48531964 -0.013891678 0.49207237
0.48629221 -0.014792404 0.49245766
0.48725721 -0.015539243 0.49277711
0.48821574 -0.016139101 0.49303368
0.48916909 -0.016612288 0.49323609
0.49011955 -0.017035134 0.49341697
0.49106753 -0.017412724 0.49357846
0.49201325 -0.01774185 0.49371925
0.49295682 -0.018011421 0.49383456
0.49389866 -0.018228834 0.49392754
0.49483907 -0.018392874 0.49399772
0.49577823 -0.01848549 0.49403733
0.49671629 -0.018464739 0.49402845
0.49765417 -0.018401541 0.49400142
0.4985922 -0.018291205 0.49395421
0.49953061 -0.018149519 0.49389362
0.50046957 -0.01799354 0.4938269
0.50140947 -0.017727224 0.49371299
0.50235051 -0.017441809 0.49359089
0.5032931 -0.017095134 0.49344262
0.50423813 -0.016620567 0.49323961
0.50518519 -0.016131761 0.49303055
0.50613546 -0.015534775 0.49277517
0.50708896 -0.014882204 0.49249607
0.50804907 -0.01397977 0.49211004
0.50901288 -0.013068448 0.49172023
0.50998354 -0.011995735 0.49126139
0.51096153 -0.0107841 0.49074313
0.51195359 -0.0091867056 0.49005985
0.51297921 -0.0065507074 0.48893234
0.40131727 0.19792351 0.40000081
0.4026784 0.19792351 0.40000081
0.40403956 0.19792345 0.40000084
0.40540069 0.19792345 0.40000084
0.40676183 0.19792345 0.40000084
0.40812296 0.19792345 0.40000084
0.40948412 0.19792345 0.40000084
0.41084525 0.19792345 0.40000084
0.41220638 0.19792345 0.40000084
0.41356754 0.19792345 0.40000084
0.41492867 0.19792345 0.40000084
0.41628981 0.19792345 0.40000084
0.41765097 0.19792345 0.40000084
0.4190121 0.19792345 0.40000084
0.42037323 0.19792345 0.40000084
0.42173439 0.19792345 0.40000084
0.42309552 0.19792345 0.40000084
0.42445666 0.19792345 0.40000084
0.42581782 0.19792345 0.40000084
0.42717895 0.19792339 0.40000084
0.42854011 0.19792339 0.40000084
0.42990124 0.19792339 0.40000084
0.43126237 0.19792339 0.40000084
0.43262354 0.19792339 0.40000084
0.43398467 0.19792339 0.40000084
0.4353458 0.19792339 0.40000084
0.43670696 0.19792339 0.40000084
0.43806809 0.19792339 0.40000084
0.43942922 0.19792339 0.40000084
0.44079039 0.19792339 0.40000084
0.44215152 0.19792339 0.40000084
0.44351265 0.19792339 0.40000084
0.44487381 0.19792339 0.40000084
0.44623494 0.19792339 0.40000084
0.44759607 0.19792339 0.40000084
0.44895723 0.19792333 0.40000087
0.45031837 0.19792333 0.40000087
0.4516795 0.19792333 0.40000087
0.45304066 0.19792333 0.40000087
0.45440179 0.19792333 0.40000087
0.45576292 0.19792333 0.40000087
0.45712408 0.19792333 0.40000087
0.45848522 0.19792333 0.40000087
0.45984635 0.19792333 0.40000087
0.46120751 0.19792333 0.40000087
0.46256864 0.19792333 0.40000087
0.46392977 0.19792333 0.40000087
0.46529093 0.19792333 0.40000087
0.46665207 0.19792333 0.40000087
0.4680132 0.19792333 0.40000087
0.46937433 0.19792333 0.40000087
0.47073549 0.19792329 0.4000009
0.48022392 -0.0053575039 0.48738021
0.48130929 -0.0085311476 0.48874438
0.48233378 -0.01036001 0.4895305
0.48333618 -0.01175133 0.49012858
0.48432571 -0.012910672 0.4906269
0.48530507 -0.013883084 0.49104488
0.48627868 -0.014786958 0.49143341
0.4872447 -0.015535221 0.49175507
0.48820439 -0.016144309 0.49201688
0.48915857 -0.016614167 0.49221882
0.49011001 -0.017039305 0.49240157
0.49105895 -0.017419226 0.49256489
0.49200556 -0.017748088 0.49270624
0.49295005 -0.018018279 0.49282238
0.49389282 -0.018237354 0.49291655
0.49483415 -0.018402999 0.49298775
0.49577424 -0.018498395 0.49302876
0.49671316 -0.01847744 0.49301976
0.49765196 -0.018414579 0.49299273
0.49859086 -0.018303912 0.49294516
0.49953017 -0.018161867 0.4928841
0.50047004 -0.018007692 0.49281782
0.50141084 -0.0177391 0.49270239
0.50235271 -0.017459149 0.49258205
0.5032962 -0.017112091 0.49243286
0.50424212 -0.016635893 0.49222818
0.50519007 -0.016146241 0.49201769
0.50614136 -0.015544707 0.49175912
0.50709563 -0.014895972 0.49148026
0.5080567 -0.013993533 0.49109235
0.5090214 -0.013082934 0.49070096
0.50999302 -0.012009832 0.49023968
0.51097196 -0.010794303 0.48971719
0.51196486 -0.009202213 0.48903283
0.51299149 -0.0065659741 0.48789966
0.51973659 0.19792317 0.40000096
0.52109772 0.19792317 0.40000096
0.52245885 0.19792317 0.40000096
0.52381998 0.19792317 0.40000096
0.52518111 0.19792317 0.40000096
0.52654225 0.19792317 0.40000096
0.52790344 0.19792317 0.40000096
0.52926457 0.19792317 0.40000096
0.5306257 0.19792317 0.40000096
0.53198683 0.19792317 0.40000096
0.53334796 0.19792317 0.40000096
0.5347091 0.19792317 0.40000096
0.53607023 0.19792317 0.40000096
0.53743142 0.19792306 0.40000099
0.53879255 0.19792306 0.40000099
0.54015368 0.19792306 0.40000099
0.54151481 0.19792306 0.40000099
0.54287595 0.19792306 0.40000099
0.54423708 0.19792306 0.40000099
0.54559821 0.19792306 0.40000099
0.5469594 0.19792306 0.40000099
0.54832053 0.19792306 0.40000099
0.54968166 0.19792306 0.40000099
0.5510428 0.19792306 0.40000099
0.55240393 0.19792306 0.40000099
0.55376506 0.19792306 0.40000099
0.55512619 0.19792306 0.40000099
0.55648738 0.19792306 0.40000099
0.55784851 0.19792306 0.40000099
0.55920964 0.197923 0.40000102
0.56057078 0.197923 0.40000102
0.56193191 0.197923 0.40000102
0.56329304 0.197923 0.40000102
0.56465417 0.197923 0.40000102
0.56601536 0.197923 0.40000102
0.56737649 0.197923 0.40000102
0.56873763 0.197923 0.40000102
0.57009876 0.197923 0.40000102
0.57145989 0.197923 0.40000102
0.57282102 0.197923 0.40000102
0.57418215 0.197923 0.40000102
0.57554334 0.197923 0.40000102
0.57690448 0.197923 0.40000102
0.57826561 0.197923 0.40000102
0.57962674 0.197923 0.40000102
0.58098787 0.197923 0.40000102
0.582349 0.19792295 0.40000105
0.58371013 0.19792295 0.40000105
0.58507133 0.19792295 0.40000105
0.58643246 0.19792295 0.40000105
0.58779359 0.19792295 0.40000105
0.58915472 0.19792295 0.40000105
0.59051585 0.19792295 0.40000105
0.59187698 0.19792295 0.40000105
0.59323812 0.19792295 0.40000105
0.59459931 0.19792295 0.40000105
0.59596044 0.19792295 0.40000105
0.59732157 0.19792295 0.40000105
0.5986827 0.19792295 0.40000105
0.40034768 0.19451402 0.40000078
0.40170348 0.19451402 0.40000078
0.4030593 0.19451402 0.40000078
0.40441513 0.19451402 0.40000078
0.40577093 0.19451402 0.40000078
0.40712675 0.19451402 0.40000078
0.40848255 0.19451402 0.40000078
0.40983838 0.19451402 0.40000078
0.41119418 0.19451402 0.40000078
0.41255 0.19451396 0.40000081
0.41390583 0.19451396 0.40000081
0.41526163 0.19451396 0.40000081
0.41661745 0.19451396 0.40000081
0.41797325 0.19451396 0.40000081
0.41932908 0.19451396 0.40000081
0.4206849 0.19451396 0.40000081
0.4220407 0.19451396 0.40000081
0.42339653 0.19451396 0.40000081
0.42475232 0.19451396 0.40000081
0.42610815 0.19451396 0.40000081
0.42746395 0.19451396 0.40000081
0.42881978 0.19451396 0.40000081
0.4301756 0.19451396 0.40000081
0.4315314 0.19451396 0.40000081
0.43288723 0.19451396 0.40000081
0.43424305 0.19451392 0.40000084
0.43559885 0.19451392 0.40000084
0.43695468 0.19451392 0.40000084
0.43831047 0.19451392 0.40000084
0.4396663 0.19451392 0.40000084
0.4410221 0.19451392 0.40000084
0.44237792 0.19451392 0.40000084
0.44373372 0.19451392 0.40000084
0.44508955 0.19451392 0.40000084
0.44644538 0.19451392 0.40000084
0.44780117 0.19451392 0.40000084
0.449157 0.19451392 0.40000084
0.4505128 0.19451392 0.40000084
0.45186862 0.19451392 0.40000084
0.45322442 0.19451392 0.40000084
0.45458025 0.19451392 0.40000084
0.45593607 0.19451386 0.40000087
0.45729187 0.19451386 0.40000087
0.4586477 0.19451386 0.40000087
0.4600035 0.19451386 0.40000087
0.46135932 0.19451386 0.40000087
0.46271515 0.19451386 0.40000087
0.46407095 0.19451386 0.40000087
0.46542677 0.19451386 0.40000087
0.46678257 0.19451386 0.40000087
0.4681384 0.19451386 0.40000087
0.46949419 0.19451386 0.40000087
0.47085002 0.19451386 0.40000087
0.48020214 -0.005295638 0.48630968
0.48128915 -0.0084813368 0.48768577
0.48231551 -0.010331721 0.48848504
0.48331898 -0.011723997 0.48908645
0.48430994 -0.012895484 0.48959249
0.48529047 -0.013874495 0.49001539
0.48626515 -0.014781508 0.49040717
0.48723212 -0.015531192 0.490731
0.48819292 -0.016146407 0.49099675
0.48914802 -0.01661608 0.49119961
0.49010044 -0.017043503 0.49138424
0.49105033 -0.017425753 0.49154937
0.49199787 -0.01775435 0.49169129
0.49294326 -0.018025655 0.4918085
0.49388698 -0.018245894 0.49190363
0.49482924 -0.01841314 0.49197587
0.49577025 -0.018511361 0.49201828
0.49671003 -0.018490151 0.49200913
0.49764973 -0.018427625 0.49198213
0.49858952 -0.018316461 0.49193412
0.49952972 -0.018174224 0.49187267
0.50047046 -0.018021854 0.49180686
0.50141215 -0.01775099 0.49168986
0.50235492 -0.017476546 0.49157131
0.5032993 -0.017129054 0.49142119
0.50424612 -0.016651338 0.49121484
0.50519496 -0.016160784 0.49100295
0.50614721 -0.015554604 0.4907411
0.50710237 -0.014909808 0.49046257
0.50806433 -0.014007311 0.49007276
0.50902992 -0.013097434 0.48967972
0.51000249 -0.012023892 0.489216
0.51098245 -0.01080448 0.48868927
0.51197618 -0.0092176897 0.48800385
0.51300377 -0.0065813209 0.48686504
0.51965934 0.19451369 0.40000093
0.52101511 0.19451369 0.40000093
0.52237093 0.19451363 0.40000096
0.52372676 0.19451363 0.40000096
0.52508259 0.19451363 0.40000096
0.52643836 0.19451363 0.40000096
0.52779418 0.19451363 0.40000096
0.52915001 0.19451363 0.40000096
0.53050584 0.19451363 0.40000096
0.53186166 0.19451363 0.40000096
0.53321743 0.19451363 0.40000096
0.53457326 0.19451363 0.40000096
0.53592908 0.19451363 0.40000096
0.53728491 0.19451363 0.40000096
0.53864068 0.19451363 0.40000096
0.5399965 0.19451363 0.40000096
0.54135233 0.19451363 0.40000096
0.54270816 0.19451363 0.40000096
0.54406393 0.19451357 0.40000099
0.54541975 0.19451357 0.40000099
0.54677558 0.19451357 0.40000099
0.54813141 0.19451357 0.40000099
0.54948723 0.19451357 0.40000099
0.550843 0.19451357 0.40000099
0.55219883 0.19451357 0.40000099
0.55355465 0.19451357 0.40000099
0.55491048 0.19451357 0.40000099
0.55626625 0.19451357 0.40000099
0.55762208 0.19451357 0.40000099
0.5589779 0.19451357 0.40000099
0.56033373 0.19451357 0.40000099
0.5616895 0.19451357 0.40000099
0.56304532 0.19451357 0.40000099
0.56440115 0.19451357 0.40000099
0.56575698 0.19451357 0.40000099
0.5671128 0.19451351 0.40000102
0.56846857 0.19451351 0.40000102
0.5698244 0.19451351 0.40000102
0.57118022 0.19451351 0.40000102
0.57253605 0.19451351 0.40000102
0.57389182 0.19451351 0.40000102
0.57524765 0.19451351 0.40000102
0.57660347 0.19451351 0.40000102
0.5779593 0.19451351 0.40000102
0.57931507 0.19451351 0.40000102
0.58067089 0.19451351 0.40000102
0.58202672 0.19451351 0.40000102
0.58338255 0.19451351 0.40000102
0.58473837 0.19451351 0.40000102
0.58609414 0.19451351 0.40000102
0.58744997 0.19451351 0.40000102
0.58880579 0.19451347 0.40000102
0.59016162 0.19451347 0.40000102
0.59151739 0.19451347 0.40000102
0.59287322 0.19451347 0.40000102
0.59422904 0.19451347 0.40000102
0.59558487 0.19451347 0.40000102
0.59694064 0.19451347 0.40000102
0.59829646 0.19451347 0.40000102
0.59965229 0.19451347 0.40000102
0.40073618 0.1911311 0.40000078
0.4020867 0.1911311 0.40000078
0.40343723 0.1911311 0.40000078
0.40478778 0.1911311 0.40000078
0.4061383 0.1911311 0.40000078
0.40748882 0.1911311 0.40000078
0.40883934 0.1911311 0.40000078
0.41018987 0.1911311 0.40000078
0.41154042 0.1911311 0.40000078
0.41289094 0.1911311 0.40000078
0.41424146 0.1911311 0.40000078
0.41559198 0.1911311 0.40000078
0.41694251 0.1911311 0.40000078
0.41829306 0.1911311 0.40000078
0.41964358 0.19113106 0.40000081
0.4209941 0.19113106 0.40000081
0.42234465 0.19113106 0.40000081
0.42369518 0.19113106 0.40000081
0.4250457 0.19113106 0.40000081
0.42639622 0.19113106 0.40000081
0.42774674 0.19113106 0.40000081
0.42909729 0.19113106 0.40000081
0.43044782 0.19113106 0.40000081
0.43179834 0.19113106 0.40000081
0.43314886 0.19113106 0.40000081
0.43449938 0.19113106 0.40000081
0.43584993 0.19113106 0.40000081
0.43720046 0.19113106 0.40000081
0.43855098 0.19113106 0.40000081
0.4399015 0.19113106 0.40000081
0.44125205 0.19113094 0.40000087
0.44260257 0.19113094 0.40000087
0.4439531 0.19113094 0.40000087
0.44530362 0.19113094 0.40000087
0.44665417 0.19113094 0.40000087
0.44800469 0.19113094 0.40000087
0.44935521 0.19113094 0.40000087
0.45070574 0.19113094 0.40000087
0.45205626 0.19113094 0.40000087
0.45340681 0.19113094 0.40000087
0.45475733 0.19113094 0.40000087
0.45610785 0.19113094 0.40000087
0.45745838 0.19113094 0.40000087
0.4588089 0.19113094 0.40000087
0.46015945 0.19113094 0.40000087
0.46150997 0.19113094 0.40000087
0.46286049 0.19113089 0.40000087
0.46421102 0.19113089 0.40000087
0.46556154 0.19113089 0.40000087
0.46691209 0.19113089 0.40000087
0.46826261 0.19113089 0.40000087
0.46961313 0.19113089 0.40000087
0.47096366 0.19113089 0.40000087
0.48018014 -0.0052296631 0.4852351
0.48126897 -0.0084313499 0.48662484
0.4822973 -0.010305958 0.48743856
0.48330176 -0.011696655 0.48804221
0.48429412 -0.012880261 0.48855597
0.48527583 -0.013865856 0.48898381
0.48625156 -0.014776002 0.48937887
0.48721954 -0.015527099 0.48970491
0.48818123 -0.016140118 0.48997098
0.48913747 -0.016617976 0.49017841
0.49009085 -0.017047675 0.49036494
0.49104172 -0.01743225 0.49053186
0.49199018 -0.017761463 0.49067476
0.49293649 -0.018033108 0.49079266
0.49388111 -0.018254451 0.49088874
0.49482429 -0.018423239 0.49096203
0.49576622 -0.018524282 0.49100587
0.4967069 -0.018502874 0.4909966
0.49764749 -0.018440686 0.4909696
0.49858817 -0.018328967 0.49092111
0.49952927 -0.018186595 0.4908593
0.50047094 -0.018036025 0.49079394
0.50141352 -0.017762892 0.49067539
0.50235718 -0.017493889 0.49055862
0.5033024 -0.017146021 0.49040762
0.50425017 -0.016666735 0.49019957
0.50519991 -0.016175341 0.48998627
0.50615311 -0.015564578 0.48972115
0.50710911 -0.014923602 0.48944294
0.50807196 -0.014021107 0.48905119
0.50903851 -0.013112339 0.48865673
0.51001197 -0.01203803 0.48819038
0.51099288 -0.010817274 0.4876605
0.51198751 -0.0092332447 0.48697293
0.51301605 -0.0065966435 0.48582846
0.51958269 0.19113077 0.40000093
0.52093321 0.19113077 0.40000093
0.52228373 0.19113077 0.40000093
0.52363425 0.19113077 0.40000093
0.52498478 0.19113077 0.40000093
0.5263353 0.19113077 0.40000093
0.52768582 0.19113077 0.40000093
0.52903634 0.19113071 0.40000096
0.53038687 0.19113071 0.40000096
0.53173739 0.19113071 0.40000096
0.53308797 0.19113071 0.40000096
0.53443849 0.19113071 0.40000096
0.53578901 0.19113071 0.40000096
0.53713953 0.19113071 0.40000096
0.53849006 0.19113071 0.40000096
0.53984058 0.19113071 0.40000096
0.5411911 0.19113071 0.40000096
0.54254162 0.19113071 0.40000096
0.54389215 0.19113071 0.40000096
0.54524267 0.19113071 0.40000096
0.54659325 0.19113071 0.40000096
0.54794377 0.19113071 0.40000096
0.54929429 0.19113071 0.40000096
0.55064481 0.19113071 0.40000096
0.55199534 0.19113067 0.40000099
0.55334586 0.19113067 0.40000099
0.55469638 0.19113067 0.40000099
0.5560469 0.19113067 0.40000099
0.55739743 0.19113067 0.40000099
0.55874795 0.19113067 0.40000099
0.56009847 0.19113067 0.40000099
0.56144899 0.19113067 0.40000099
0.56279957 0.19113067 0.40000099
0.56415009 0.19113067 0.40000099
0.56550062 0.19113067 0.40000099
0.56685114 0.19113067 0.40000099
0.56820166 0.19113067 0.40000099
0.56955218 0.19113067 0.40000099
0.57090271 0.19113067 0.40000099
0.57225323 0.19113067 0.40000099
0.57360375 0.19113061 0.40000099
0.57495427 0.19113061 0.40000099
0.57630479 0.19113061 0.40000099
0.57765538 0.19113061 0.40000099
0.5790059 0.19113061 0.40000099
0.58035642 0.19113061 0.40000099
0.58170694 0.19113061 0.40000099
0.58305746 0.19113061 0.40000099
0.58440799 0.19113061 0.40000099
0.58575851 0.19113061 0.40000099
0.58710903 0.19113061 0.40000099
0.58845955 0.19113061 0.40000099
0.58981007 0.19113061 0.40000099
0.5911606 0.19113061 0.40000099
0.59251118 0.19113061 0.40000099
0.5938617 0.19113061 0.40000099
0.59521222 0.19113055 0.40000102
0.59656274 0.19113055 0.40000102
0.59791327 0.19113055 0.40000102
0.59926379 0.19113055 0.40000102
0.40112168 0.18777448 0.40000078
0.40246695 0.18777448 0.40000078
0.40381223 0.18777448 0.40000078
0.40515754 0.18777442 0.40000078
0.40650281 0.18777442 0.40000078
0.40784809 0.18777442 0.40000078
0.40919337 0.18777442 0.40000078
0.41053867 0.18777442 0.40000078
0.41188395 0.18777442 0.40000078
0.41322923 0.18777442 0.40000078
0.4145745 0.18777442 0.40000078
0.41591981 0.18777442 0.40000078
0.41726509 0.18777442 0.40000078
0.41861036 0.18777442 0.40000078
0.41995564 0.18777442 0.40000078
0.42130092 0.18777442 0.40000078
0.42264622 0.18777442 0.40000078
0.4239915 0.18777442 0.40000078
0.42533678 0.18777442 0.40000078
0.42668208 0.18777438 0.40000081
0.42802736 0.18777438 0.40000081
0.42937264 0.18777438 0.40000081
0.43071792 0.18777438 0.40000081
0.43206319 0.18777438 0.40000081
0.4334085 0.18777438 0.40000081
0.43475378 0.18777438 0.40000081
0.43609905 0.18777438 0.40000081
0.43744433 0.18777438 0.40000081
0.43878961 0.18777438 0.40000081
0.44013491 0.18777438 0.40000081
0.44148019 0.18777438 0.40000081
0.44282547 0.18777438 0.40000081
0.44417074 0.18777438 0.40000081
0.44551605 0.18777438 0.40000081
0.44686133 0.18777438 0.40000081
0.4482066 0.18777438 0.40000081
0.44955188 0.18777432 0.40000084
0.45089719 0.18777432 0.40000084
0.45224246 0.18777432 0.40000084
0.45358774 0.18777432 0.40000084
0.45493302 0.18777432 0.40000084
0.45627829 0.18777432 0.40000084
0.4576236 0.18777432 0.40000084
0.45896888 0.18777432 0.40000084
0.46031415 0.18777432 0.40000084
0.46165943 0.18777432 0.40000084
0.46300474 0.18777432 0.40000084
0.46435001 0.18777432 0.40000084
0.46569529 0.18777432 0.40000084
0.46704057 0.18777432 0.40000084
0.46838585 0.18777432 0.40000084
0.46973115 0.18777432 0.40000084
0.47107643 0.1877742 0.4000009
0.48015812 -0.0051634978 0.48415807
0.48124874 -0.0083813546 0.48556167
0.48227906 -0.010280134 0.48638991
0.4832845 -0.011669254 0.48699582
0.48427826 -0.012864954 0.48751736
0.48526117 -0.013857229 0.48795018
0.48623797 -0.014770443 0.48834851
0.48720694 -0.015522676 0.48867664
0.48816952 -0.016134491 0.48894349
0.48912689 -0.016620457 0.48915547
0.49008125 -0.017051883 0.48934364
0.49103308 -0.017438775 0.48951241
0.49198246 -0.017768931 0.48965642
0.4929297 -0.018040475 0.48977485
0.49387524 -0.018263033 0.48987195
0.49481934 -0.018433416 0.48994625
0.49576217 -0.018535787 0.48999092
0.49670377 -0.018515665 0.48998213
0.49764526 -0.018453812 0.48995516
0.49858683 -0.018341489 0.48990616
0.49952883 -0.018199036 0.48984402
0.50047135 -0.018050205 0.48977911
0.50141484 -0.017774813 0.48965898
0.50235939 -0.017511293 0.48954403
0.50330549 -0.017163107 0.48939216
0.50425416 -0.016683353 0.48918289
0.50520486 -0.01618991 0.48896766
0.50615901 -0.015574578 0.48869926
0.50711584 -0.014937416 0.48842135
0.50807965 -0.014034924 0.48802769
0.50904703 -0.013129132 0.4876326
0.51002145 -0.012052188 0.48716283
0.51100332 -0.010833837 0.48663139
0.51199883 -0.0092488257 0.48594004
0.51302838 -0.0066119954 0.48478988
0.51950663 0.18777409 0.40000093
0.52085191 0.18777409 0.40000093
0.52219719 0.18777409 0.40000093
0.52354246 0.18777409 0.40000093
0.52488774 0.18777409 0.40000093
0.52623302 0.18777409 0.40000093
0.52757829 0.18777409 0.40000093
0.52892357 0.18777409 0.40000093
0.53026891 0.18777409 0.40000093
0.53161418 0.18777409 0.40000093
0.53295946 0.18777409 0.40000093
0.53430474 0.18777409 0.40000093
0.53565001 0.18777409 0.40000093
0.53699529 0.18777403 0.40000096
0.53834057 0.18777403 0.40000096
0.53968585 0.18777403 0.40000096
0.54103112 0.18777403 0.40000096
0.5423764 0.18777403 0.40000096
0.54372174 0.18777403 0.40000096
0.54506701 0.18777403 0.40000096
0.54641229 0.18777403 0.40000096
0.54775757 0.18777403 0.40000096
0.54910284 0.18777403 0.40000096
0.55044812 0.18777403 0.40000096
0.5517934 0.18777403 0.40000096
0.55313867 0.18777403 0.40000096
0.55448395 0.18777403 0.40000096
0.55582923 0.18777403 0.40000096
0.55717456 0.18777403 0.40000096
0.55851984 0.18777397 0.40000099
0.55986512 0.18777397 0.40000099
0.56121039 0.18777397 0.40000099
0.56255567 0.18777397 0.40000099
0.56390095 0.18777397 0.40000099
0.56524622 0.18777397 0.40000099
0.5665915 0.18777397 0.40000099
0.56793678 0.18777397 0.40000099
0.56928205 0.18777397 0.40000099
0.57062733 0.18777397 0.40000099
0.57197267 0.18777397 0.40000099
0.57331795 0.18777397 0.40000099
0.57466322 0.18777397 0.40000099
0.5760085 0.18777397 0.40000099
0.57735378 0.18777397 0.40000099
0.57869905 0.18777397 0.40000099
0.58004433 0.18777393 0.40000102
0.58138961 0.18777393 0.40000102
0.58273488 0.18777393 0.40000102
0.58408016 0.18777393 0.40000102
0.58542544 0.18777393 0.40000102
0.58677077 0.18777393 0.40000102
0.58811605 0.18777393 0.40000102
0.58946133 0.18777393 0.40000102
0.5908066 0.18777393 0.40000102
0.59215188 0.18777393 0.40000102
0.59349716 0.18777393 0.40000102
0.59484243 0.18777393 0.40000102
0.59618771 0.18777393 0.40000102
0.59753299 0.18777387 0.40000102
0.59887826 0.18777387 0.40000102
0.4001641 0.1844438 0.40000078
0.40150419 0.1844438 0.40000078
0.40284425 0.1844438 0.40000078
0.40418434 0.1844438 0.40000078
0.4055244 0.1844438 0.40000078
0.40686449 0.1844438 0.40000078
0.40820459 0.1844438 0.40000078
0.40954465 0.1844438 0.40000078
0.41088474 0.1844438 0.40000078
0.41222483 0.18444374 0.40000078
0.41356489 0.18444374 0.40000078
0.41490498 0.18444374 0.40000078
0.41624504 0.18444374 0.40000078
0.41758513 0.18444374 0.40000078
0.41892523 0.18444374 0.40000078
0.42026529 0.18444374 0.40000078
0.42160538 0.18444374 0.40000078
0.42294544 0.18444374 0.40000078
0.42428553 0.18444374 0.40000078
0.42562562 0.18444374 0.40000078
0.42696568 0.18444374 0.40000078
0.42830577 0.18444374 0.40000078
0.42964587 0.18444374 0.40000078
0.43098593 0.18444374 0.40000078
0.43232602 0.18444374 0.40000078
0.43366608 0.18444374 0.40000078
0.43500617 0.1844437 0.40000081
0.43634626 0.1844437 0.40000081
0.43768632 0.1844437 0.40000081
0.43902642 0.1844437 0.40000081
0.44036648 0.1844437 0.40000081
0.44170657 0.1844437 0.40000081
0.44304666 0.1844437 0.40000081
0.44438672 0.1844437 0.40000081
0.44572681 0.1844437 0.40000081
0.44706687 0.1844437 0.40000081
0.44840696 0.1844437 0.40000081
0.44974706 0.1844437 0.40000081
0.45108712 0.1844437 0.40000081
0.45242721 0.1844437 0.40000081
0.45376727 0.1844437 0.40000081
0.45510736 0.1844437 0.40000081
0.45644745 0.18444358 0.40000087
0.45778751 0.18444358 0.40000087
0.4591276 0.18444358 0.40000087
0.4604677 0.18444358 0.40000087
0.46180776 0.18444358 0.40000087
0.46314785 0.18444358 0.40000087
0.46448791 0.18444358 0.40000087
0.465828 0.18444358 0.40000087
0.46716809 0.18444358 0.40000087
0.46850815 0.18444358 0.40000087
0.46984825 0.18444358 0.40000087
0.47118831 0.18444358 0.40000087
0.48013467 -0.005063144 0.48306373
0.48122847 -0.0083311861 0.48449615
0.48226076 -0.01025431 0.48533908
0.48326719 -0.011641796 0.48594725
0.48426238 -0.012849728 0.48647669
0.48524648 -0.013848612 0.48691452
0.48622432 -0.014764998 0.48731616
0.4871943 -0.015518253 0.48764634
0.48815787 -0.016131558 0.48791516
0.48911634 -0.016623693 0.48813087
0.49007162 -0.017056124 0.48832041
0.49102443 -0.017445331 0.488491
0.49197474 -0.017776372 0.48863608
0.49292287 -0.018047925 0.48875511
0.49386933 -0.018271582 0.48885316
0.49481437 -0.018443227 0.48892838
0.49575812 -0.018545335 0.48897314
0.49670064 -0.018528417 0.48896572
0.49764302 -0.018466845 0.48893872
0.49858549 -0.018354082 0.48888931
0.49952838 -0.018211439 0.48882678
0.50047183 -0.018064456 0.48876235
0.50141621 -0.017792245 0.48864305
0.5023616 -0.017528763 0.48852757
0.50330865 -0.017180149 0.48837477
0.50425816 -0.016699987 0.48816431
0.50520974 -0.016204225 0.48794699
0.50616491 -0.015584549 0.4876754
0.5071227 -0.014948177 0.48739645
0.50808734 -0.014049971 0.48700276
0.50905555 -0.013147537 0.48660722
0.51003093 -0.012068735 0.48613438
0.51101369 -0.010850422 0.48560038
0.51201022 -0.0092644347 0.48490521
0.51304072 -0.0066273818 0.48374936
0.51943117 0.18444347 0.4000009
0.52077127 0.18444347 0.4000009
0.5221113 0.18444341 0.40000093
0.52345139 0.18444341 0.40000093
0.52479148 0.18444341 0.40000093
0.52613157 0.18444341 0.40000093
0.5274716 0.18444341 0.40000093
0.52881169 0.18444341 0.40000093
0.53015178 0.18444341 0.40000093
0.53149188 0.18444341 0.40000093
0.53283197 0.18444341 0.40000093
0.534172 0.18444341 0.40000093
0.53551209 0.18444341 0.40000093
0.53685218 0.18444341 0.40000093
0.53819227 0.18444341 0.40000093
0.53953236 0.18444341 0.40000093
0.5408724 0.18444341 0.40000093
0.54221249 0.18444341 0.40000093
0.54355258 0.18444335 0.40000096
0.54489267 0.18444335 0.40000096
0.5462327 0.18444335 0.40000096
0.54757279 0.18444335 0.40000096
0.54891288 0.18444335 0.40000096
0.55025297 0.18444335 0.40000096
0.55159307 0.18444335 0.40000096
0.5529331 0.18444335 0.40000096
0.55427319 0.18444335 0.40000096
0.55561328 0.18444335 0.40000096
0.55695337 0.18444335 0.40000096
0.55829346 0.18444335 0.40000096
0.55963349 0.18444335 0.40000096
0.56097358 0.18444335 0.40000096
0.56231368 0.18444335 0.40000096
0.56365377 0.18444335 0.40000096
0.5649938 0.18444331 0.40000099
