# .PCD v0.7 - Point Cloud Data file format
VERSION 0.7
FIELDS x y z rgb
SIZE 4 4 4 4
TYPE F F F U
COUNT 1 1 1 1
WIDTH 55
HEIGHT 1
VIEWPOINT 0 0 0 1 0 0 0
POINTS 55
DATA ascii
0.2900289 1.0614672 -0.045762543 4278190080
0.29005197 1.0633883 -0.045849308 4278190080
0.29007515 1.0653156 -0.045936447 4278190080
0.2900984 1.0672489 -0.046023894 4278190080
0.2901217 1.0691884 -0.046111584 4278190080
0.29014507 1.0711341 -0.046199489 4278190080
0.29167554 1.0611557 -0.045695685 4278190080
0.29170123 1.0630772 -0.045782458 4278190080
0.29172701 1.0650049 -0.045869593 4278190080
0.2917529 1.0669388 -0.045956902 4278190080
0.29177883 1.0688787 -0.046044536 4278190080
0.29332376 1.0608438 -0.045628853 4278190080
0.29335207 1.0627658 -0.045715567 4278190080
0.2933805 1.064694 -0.045802563 4278190080
0.29340899 1.0666282 -0.045889877 4278190080
0.29343757 1.0685686 -0.045977362 4278190080
0.29497361 1.0605317 -0.045562048 4278190080
0.29500455 1.0624542 -0.045648683 4278190080
0.29503557 1.0643828 -0.045735624 4278190080
0.29506671 1.0663174 -0.045822755 4278190080
0.29509795 1.0682583 -0.045910183 4278190080
0.29662505 1.0602194 -0.045495041 4278190080
0.29665861 1.0621424 -0.045581624 4278190080
0.29669225 1.0640713 -0.045668475 4278190080
0.29672605 1.0660065 -0.045755673 4278190080
0.29827806 1.0599066 -0.045428008 4278190080
0.29831427 1.06183 -0.04551449 4278190080
0.29835057 1.0637594 -0.045601286 4278190080
0.29838699 1.065695 -0.045688387 4278190080
0.29993269 1.0595936 -0.045360848 4278190080
0.29997152 1.0615174 -0.045447331 4278190080
0.30001047 1.0634474 -0.045534071 4278190080
0.30004954 1.0653834 -0.045621105 4278190080
0.30158892 1.0592803 -0.045293689 4278190080
0.30163041 1.0612046 -0.045380112 4278190080
0.30167201 1.0631349 -0.045466755 4278190080
0.30171373 1.0650715 -0.045553725 4278190080
0.3032468 1.0589668 -0.045226578 4278190080
0.3032909 1.0608914 -0.045312941 4278190080
0.30333516 1.0628222 -0.045399521 4278190080
0.30490622 1.0586528 -0.045159213 4278190080
0.30495304 1.060578 -0.045245562 4278190080
0.30499992 1.0625092 -0.045332041 4278190080
0.30656731 1.0583385 -0.045091856 4278190080
0.30661672 1.0602641 -0.045178067 4278190080
0.30666631 1.0621958 -0.045264557 4278190080
0.30822998 1.058024 -0.045024414 4278190080
0.30828205 1.05995 -0.045110609 4278190080
0.30989429 1.0577092 -0.04495693 4278190080
0.30994904 1.0596356 -0.045043051 4278190080
0.31156021 1.0573941 -0.044889476 4278190080
0.31161761 1.0593209 -0.044975497 4278190080
0.31322774 1.0570786 -0.044821776 4278190080
0.31489691 1.0567628 -0.044754118 4278190080
0.31656766 1.0564468 -0.044686291 4278190080
